# .PCD v0.7 - Point Cloud Data file format
VERSION 0.7
FIELDS x y z rgb
SIZE 4 4 4 4
TYPE F F F F
COUNT 1 1 1 1
WIDTH 1028
HEIGHT 1
VIEWPOINT 0 0 0 1 0 0 0
POINTS 1028
DATA ascii
1.8024508 -0.19345947 0.3834644 3.3380121e-39
1.8024508 -0.19671524 0.3834652 3.3380121e-39
1.8024509 -0.19997098 0.38346601 3.3380121e-39
1.8024509 -0.20322669 0.38346681 3.3380121e-39
1.8024509 -0.20648235 0.38346761 3.3380121e-39
1.8024509 -0.20973802 0.38346842 3.3380121e-39
1.802451 -0.21299367 0.38346922 3.3380121e-39
1.802451 -0.21624927 0.38347006 3.3380121e-39
1.802451 -0.21950488 0.38347083 3.3380121e-39
1.8024511 -0.22276045 0.38347164 3.3380121e-39
1.8024509 -0.22601596 0.38347247 3.3380121e-39
1.802451 -0.22927149 0.38347328 3.3380121e-39
1.802451 -0.23252697 0.38347408 3.3380121e-39
1.8024511 -0.23578246 0.38347489 3.3380121e-39
1.8024511 -0.23903789 0.38347569 3.3380121e-39
1.8024513 -0.24229331 0.3834765 3.3380121e-39
1.802451 -0.24554868 0.38347733 3.3380121e-39
1.802451 -0.24880405 0.38347813 3.3380121e-39
1.8024513 -0.25205943 0.38347891 3.3380121e-39
1.8024513 -0.25531474 0.38347971 3.3380121e-39
1.8024514 -0.25857008 0.38348052 3.3380121e-39
1.8024514 -0.26182529 0.38348132 3.3380121e-39
1.8024515 -0.26508057 0.38348213 3.3380121e-39
1.8024515 -0.26833579 0.38348293 3.3380121e-39
1.8024515 -0.27159101 0.38348374 3.3380121e-39
1.8024487 0.14853263 0.38012183 3.3380121e-39
1.8024489 0.14527428 0.38012263 3.3380121e-39
1.8024489 0.14201596 0.38012344 3.3380121e-39
1.802449 0.13875766 0.38012427 3.3380121e-39
1.802449 0.13549937 0.38012508 3.3380121e-39
1.8024489 0.13224113 0.38012591 3.3380121e-39
1.8024489 0.12898289 0.38012671 3.3380121e-39
1.802449 0.12572469 0.38012755 3.3380121e-39
1.802449 0.12246651 0.38012838 3.3380121e-39
1.8024487 0.11920834 0.38012922 3.3380121e-39
1.8024487 0.11595021 0.38013005 3.3380121e-39
1.8024489 0.11269211 0.38013083 3.3380121e-39
1.8024489 0.10943404 0.38013166 3.3380121e-39
1.802449 0.10617599 0.3801325 3.3380121e-39
1.8024487 0.10291795 0.38013333 3.3380121e-39
1.8024489 0.099659942 0.38013417 3.3380121e-39
1.8024489 0.096401967 0.38013494 3.3380121e-39
1.802449 0.093144007 0.38013577 3.3380121e-39
1.802449 0.089886077 0.38013661 3.3380121e-39
1.8024491 0.086628184 0.38013741 3.3380121e-39
1.802449 0.083370298 0.38013822 3.3380121e-39
1.802449 0.080112435 0.38013905 3.3380121e-39
1.802449 0.076854609 0.38013989 3.3380121e-39
1.8024491 0.073596805 0.38014072 3.3380121e-39
1.8024491 0.070339024 0.3801415 3.3380121e-39
1.8024492 0.067081265 0.38014233 3.3380121e-39
1.8024491 0.063823529 0.38014317 3.3380121e-39
1.8024491 0.060565826 0.38014397 3.3380121e-39
1.8024492 0.057308145 0.38014477 3.3380121e-39
1.8024491 0.054050483 0.38014561 3.3380121e-39
1.8024492 0.050792854 0.38014644 3.3380121e-39
1.8024492 0.047535244 0.38014725 3.3380121e-39
1.8024492 0.044277657 0.38014805 3.3380121e-39
1.8024492 0.041020099 0.38014889 3.3380121e-39
1.8024493 0.037762564 0.38014972 3.3380121e-39
1.8024493 0.034505054 0.38015053 3.3380121e-39
1.8024493 0.031247567 0.38015136 3.3380121e-39
1.8024493 0.027990106 0.38015217 3.3380121e-39
1.8024493 0.02473267 0.380153 3.3380121e-39
1.8024493 0.021475259 0.38015381 3.3380121e-39
1.8024495 0.018217871 0.38015464 3.3380121e-39
1.8024495 0.014960508 0.38015544 3.3380121e-39
1.8024496 0.011703171 0.38015628 3.3380121e-39
1.8024496 0.0084458571 0.38015705 3.3380121e-39
1.8024497 0.0051885676 0.38015789 3.3380121e-39
1.8024495 0.0019313032 0.38015872 3.3380121e-39
1.8024495 -0.0013259361 0.38015956 3.3380121e-39
1.8024496 -0.004583152 0.38016036 3.3380121e-39
1.8024496 -0.0078403419 0.38016117 3.3380121e-39
1.8024497 -0.011097508 0.380162 3.3380121e-39
1.8024497 -0.014354648 0.38016284 3.3380121e-39
1.8024496 -0.017611763 0.38016367 3.3380121e-39
1.8024496 -0.020868853 0.38016447 3.3380121e-39
1.8024497 -0.024125921 0.38016528 3.3380121e-39
1.8024497 -0.027382964 0.38016611 3.3380121e-39
1.8024498 -0.030639987 0.38016692 3.3380121e-39
1.8024498 -0.033896983 0.38016772 3.3380121e-39
1.8024497 -0.037153944 0.38016859 3.3380121e-39
1.8024497 -0.040410887 0.38016939 3.3380121e-39
1.8024497 -0.043667808 0.38017023 3.3380121e-39
1.8024498 -0.046924703 0.380171 3.3380121e-39
1.8024498 -0.050181571 0.38017184 3.3380121e-39
1.8024499 -0.053438421 0.38017267 3.3380121e-39
1.8024497 -0.056695234 0.3801735 3.3380121e-39
1.8024498 -0.059952028 0.38017431 3.3380121e-39
1.8024498 -0.063208804 0.38017511 3.3380121e-39
1.8024499 -0.066465549 0.38017595 3.3380121e-39
1.8024499 -0.069722272 0.38017678 3.3380121e-39
1.8024501 -0.072978973 0.38017756 3.3380121e-39
1.8024501 -0.076235652 0.38017839 3.3380121e-39
1.8024501 -0.079492293 0.38017923 3.3380121e-39
1.8024501 -0.08274892 0.38018003 3.3380121e-39
1.8024501 -0.086005516 0.38018087 3.3380121e-39
1.8024502 -0.089262106 0.38018167 3.3380121e-39
1.8024501 -0.09251865 0.3801825 3.3380121e-39
1.8024502 -0.095775165 0.38018331 3.3380121e-39
1.8024501 -0.099031664 0.38018414 3.3380121e-39
1.8024502 -0.10228814 0.38018495 3.3380121e-39
1.8024502 -0.1055446 0.38018578 3.3380121e-39
1.8024503 -0.10880102 0.38018659 3.3380121e-39
1.8024503 -0.11205743 0.38018739 3.3380121e-39
1.8024504 -0.11531381 0.38018823 3.3380121e-39
1.8024502 -0.11857015 0.38018906 3.3380121e-39
1.8024502 -0.12182645 0.3801899 3.3380121e-39
1.8024503 -0.12508278 0.3801907 3.3380121e-39
1.8024503 -0.12833904 0.3801915 3.3380121e-39
1.8024504 -0.1315953 0.38019234 3.3380121e-39
1.8024504 -0.13485153 0.38019311 3.3380121e-39
1.8024503 -0.13810772 0.38019398 3.3380121e-39
1.8024503 -0.1413639 0.38019478 3.3380121e-39
1.8024504 -0.14462006 0.38019562 3.3380121e-39
1.8024504 -0.1478762 0.38019645 3.3380121e-39
1.8024504 -0.1511323 0.38019723 3.3380121e-39
1.8024505 -0.1543884 0.38019806 3.3380121e-39
1.8024504 -0.15764444 0.3801989 3.3380121e-39
1.8024505 -0.16090047 0.38019973 3.3380121e-39
1.8024504 -0.16415647 0.38020054 3.3380121e-39
1.8024505 -0.16741246 0.38020134 3.3380121e-39
1.8024505 -0.17066842 0.38020217 3.3380121e-39
1.8024507 -0.17392436 0.38020298 3.3380121e-39
1.8024505 -0.17718026 0.38020381 3.3380121e-39
1.8024508 -0.18043616 0.38020462 3.3380121e-39
1.8024505 -0.18369199 0.38020545 3.3380121e-39
1.8024505 -0.18694784 0.38020629 3.3380121e-39
1.8024507 -0.19020365 0.38020706 3.3380121e-39
1.8024507 -0.19345945 0.3802079 3.3380121e-39
1.8024508 -0.19671521 0.38020873 3.3380121e-39
1.8024508 -0.19997095 0.38020954 3.3380121e-39
1.8024507 -0.20322663 0.38021037 3.3380121e-39
1.8024507 -0.20648234 0.38021117 3.3380121e-39
1.8024507 -0.20973797 0.38021201 3.3380121e-39
1.8024508 -0.21299362 0.38021284 3.3380121e-39
1.8024508 -0.21624923 0.38021365 3.3380121e-39
1.8024509 -0.21950483 0.38021445 3.3380121e-39
1.8024507 -0.22276038 0.38021529 3.3380121e-39
1.8024508 -0.22601591 0.38021612 3.3380121e-39
1.8024508 -0.22927144 0.38021696 3.3380121e-39
1.8024509 -0.23252693 0.38021773 3.3380121e-39
1.8024509 -0.2357824 0.38021857 3.3380121e-39
1.8024509 -0.23903784 0.38021937 3.3380121e-39
1.8024509 -0.24229325 0.3802202 3.3380121e-39
1.8024509 -0.24554865 0.38022101 3.3380121e-39
1.802451 -0.24880402 0.38022184 3.3380121e-39
1.802451 -0.25205937 0.38022265 3.3380121e-39
1.8024511 -0.25531468 0.38022345 3.3380121e-39
1.8024511 -0.25856999 0.38022429 3.3380121e-39
1.8024511 -0.26182523 0.38022509 3.3380121e-39
1.8024513 -0.26508051 0.38022593 3.3380121e-39
1.8024513 -0.26833573 0.38022673 3.3380121e-39
1.8024513 -0.27159092 0.38022757 3.3380121e-39
1.8024486 0.14853261 0.37686402 3.3380121e-39
1.8024486 0.14527427 0.37686485 3.3380121e-39
1.8024487 0.14201595 0.37686568 3.3380121e-39
1.8024486 0.13875763 0.37686652 3.3380121e-39
1.8024487 0.13549936 0.37686735 3.3380121e-39
1.8024487 0.13224111 0.37686819 3.3380121e-39
1.8024487 0.12898287 0.37686902 3.3380121e-39
1.8024487 0.12572469 0.37686986 3.3380121e-39
1.8024489 0.12246651 0.37687069 3.3380121e-39
1.8024486 0.11920834 0.37687153 3.3380121e-39
1.8024487 0.11595022 0.37687236 3.3380121e-39
1.8024487 0.11269212 0.3768732 3.3380121e-39
1.8024486 0.10943403 0.37687406 3.3380121e-39
1.8024486 0.10617598 0.37687489 3.3380121e-39
1.8024487 0.10291795 0.3768757 3.3380121e-39
1.8024487 0.09965995 0.37687653 3.3380121e-39
1.8024489 0.096401975 0.37687737 3.3380121e-39
1.8024489 0.093144014 0.3768782 3.3380121e-39
1.8024487 0.089886077 0.37687904 3.3380121e-39
1.8024487 0.086628176 0.37687987 3.3380121e-39
1.8024487 0.083370298 0.37688071 3.3380121e-39
1.8024489 0.08011245 0.37688154 3.3380121e-39
1.8024489 0.076854616 0.37688237 3.3380121e-39
1.802449 0.073596813 0.37688321 3.3380121e-39
1.8024487 0.070339024 0.37688404 3.3380121e-39
1.8024489 0.067081265 0.37688488 3.3380121e-39
1.8024489 0.063823536 0.37688571 3.3380121e-39
1.802449 0.060565833 0.37688655 3.3380121e-39
1.802449 0.057308152 0.37688735 3.3380121e-39
1.8024491 0.054050494 0.37688819 3.3380121e-39
1.8024489 0.050792854 0.37688905 3.3380121e-39
1.802449 0.047535252 0.37688988 3.3380121e-39
1.802449 0.044277668 0.37689069 3.3380121e-39
1.8024491 0.04102011 0.37689152 3.3380121e-39
1.8024491 0.037762575 0.37689236 3.3380121e-39
1.8024492 0.034505062 0.37689316 3.3380121e-39
1.8024492 0.031247575 0.376894 3.3380121e-39
1.8024491 0.027990114 0.37689486 3.3380121e-39
1.8024491 0.024732677 0.37689567 3.3380121e-39
1.8024492 0.021475267 0.3768965 3.3380121e-39
1.8024492 0.01821788 0.37689734 3.3380121e-39
1.8024492 0.014960518 0.37689817 3.3380121e-39
1.8024493 0.011703182 0.376899 3.3380121e-39
1.8024491 0.0084458664 0.37689984 3.3380121e-39
1.8024492 0.0051885787 0.37690067 3.3380121e-39
1.8024492 0.0019313153 0.37690151 3.3380121e-39
1.8024493 -0.0013259239 0.37690234 3.3380121e-39
1.8024493 -0.004583138 0.37690318 3.3380121e-39
1.8024495 -0.0078403279 0.37690401 3.3380121e-39
1.8024492 -0.011097491 0.37690485 3.3380121e-39
1.8024493 -0.014354634 0.37690568 3.3380121e-39
1.8024493 -0.017611749 0.37690651 3.3380121e-39
1.8024495 -0.020868842 0.37690735 3.3380121e-39
1.8024495 -0.024125908 0.37690818 3.3380121e-39
1.8024496 -0.027382949 0.37690899 3.3380121e-39
1.8024495 -0.030639965 0.37690982 3.3380121e-39
1.8024495 -0.03389696 0.37691069 3.3380121e-39
1.8024496 -0.037153929 0.37691149 3.3380121e-39
1.8024496 -0.040410873 0.37691233 3.3380121e-39
1.8024497 -0.04366779 0.37691313 3.3380121e-39
1.8024497 -0.046924684 0.37691396 3.3380121e-39
1.8024497 -0.050181553 0.37691483 3.3380121e-39
1.8024496 -0.053438395 0.37691566 3.3380121e-39
1.8024497 -0.056695215 0.37691647 3.3380121e-39
1.8024497 -0.059952013 0.3769173 3.3380121e-39
1.8024498 -0.063208781 0.37691814 3.3380121e-39
1.8024498 -0.066465534 0.37691897 3.3380121e-39
1.8024499 -0.069722258 0.37691981 3.3380121e-39
1.8024497 -0.072978944 0.37692064 3.3380121e-39
1.8024497 -0.076235615 0.37692147 3.3380121e-39
1.8024498 -0.079492271 0.37692231 3.3380121e-39
1.8024498 -0.08274889 0.37692314 3.3380121e-39
1.8024499 -0.086005494 0.37692398 3.3380121e-39
1.8024499 -0.089262076 0.37692481 3.3380121e-39
1.8024498 -0.092518613 0.37692565 3.3380121e-39
1.8024498 -0.095775142 0.37692648 3.3380121e-39
1.8024499 -0.099031635 0.37692732 3.3380121e-39
1.8024499 -0.10228811 0.37692812 3.3380121e-39
1.8024501 -0.10554457 0.37692899 3.3380121e-39
1.8024501 -0.10880099 0.37692979 3.3380121e-39
1.8024498 -0.11205738 0.37693065 3.3380121e-39
1.8024499 -0.11531376 0.37693149 3.3380121e-39
1.8024499 -0.11857012 0.37693229 3.3380121e-39
1.8024501 -0.12182644 0.37693313 3.3380121e-39
1.8024501 -0.12508276 0.37693396 3.3380121e-39
1.8024502 -0.12833902 0.37693477 3.3380121e-39
1.8024501 -0.13159527 0.3769356 3.3380121e-39
1.8024502 -0.13485152 0.37693644 3.3380121e-39
1.8024502 -0.1381077 0.37693727 3.3380121e-39
1.8024503 -0.1413639 0.3769381 3.3380121e-39
1.8024503 -0.14462005 0.37693894 3.3380121e-39
1.8024503 -0.14787619 0.37693977 3.3380121e-39
1.8024504 -0.15113229 0.37694061 3.3380121e-39
1.8024502 -0.15438837 0.37694144 3.3380121e-39
1.8024503 -0.15764442 0.37694228 3.3380121e-39
1.8024503 -0.16090046 0.37694311 3.3380121e-39
1.8024504 -0.16415647 0.37694395 3.3380121e-39
1.8024504 -0.16741246 0.37694475 3.3380121e-39
1.8024505 -0.17066841 0.37694559 3.3380121e-39
1.8024503 -0.17392433 0.37694645 3.3380121e-39
1.8024503 -0.17718023 0.37694728 3.3380121e-39
1.8024504 -0.18043613 0.37694812 3.3380121e-39
1.8024504 -0.18369198 0.37694892 3.3380121e-39
1.8024505 -0.18694782 0.37694973 3.3380121e-39
1.8024505 -0.19020364 0.37695056 3.3380121e-39
1.8024505 -0.19345942 0.37695143 3.3380121e-39
1.8024505 -0.19671518 0.37695223 3.3380121e-39
1.8024505 -0.19997092 0.3769531 3.3380121e-39
1.8024505 -0.20322661 0.3769539 3.3380121e-39
1.8024504 -0.20648231 0.37695476 3.3380121e-39
1.8024505 -0.20973796 0.37695557 3.3380121e-39
1.8024507 -0.21299361 0.3769564 3.3380121e-39
1.8024508 -0.21624921 0.37695724 3.3380121e-39
1.8024505 -0.21950479 0.37695807 3.3380121e-39
1.8024507 -0.22276036 0.37695891 3.3380121e-39
1.8024507 -0.2260159 0.37695974 3.3380121e-39
1.8024507 -0.22927143 0.37696058 3.3380121e-39
1.8024508 -0.23252691 0.37696141 3.3380121e-39
1.8024508 -0.23578238 0.37696224 3.3380121e-39
1.8024507 -0.2390378 0.37696308 3.3380121e-39
1.8024507 -0.24229322 0.37696391 3.3380121e-39
1.8024508 -0.24554861 0.37696475 3.3380121e-39
1.8024508 -0.24880399 0.37696558 3.3380121e-39
1.802451 -0.25205934 0.37696636 3.3380121e-39
1.8024509 -0.25531465 0.37696722 3.3380121e-39
1.8024508 -0.25856996 0.37696806 3.3380121e-39
1.8024509 -0.26182517 0.37696889 3.3380121e-39
1.8024509 -0.26508045 0.37696972 3.3380121e-39
1.802451 -0.26833567 0.37697053 3.3380121e-39
1.802451 -0.27159089 0.37697136 3.3380121e-39
1.8024485 0.14853261 0.37360623 3.3380121e-39
1.8024486 0.14527427 0.3736071 3.3380121e-39
1.8024484 0.14201593 0.37360796 3.3380121e-39
1.8024485 0.13875763 0.3736088 3.3380121e-39
1.8024485 0.13549936 0.37360963 3.3380121e-39
1.8024486 0.13224111 0.37361047 3.3380121e-39
1.8024486 0.12898289 0.3736113 3.3380121e-39
1.8024485 0.12572467 0.3736122 3.3380121e-39
1.8024485 0.1224665 0.37361303 3.3380121e-39
1.8024485 0.11920834 0.37361389 3.3380121e-39
1.8024483 0.1159502 0.37361473 3.3380121e-39
1.8024484 0.1126921 0.37361556 3.3380121e-39
1.8024484 0.10943402 0.37361646 3.3380121e-39
1.8024484 0.10617597 0.37361729 3.3380121e-39
1.8024485 0.10291795 0.37361813 3.3380121e-39
1.8024485 0.09965995 0.37361896 3.3380121e-39
1.8024484 0.09640196 0.37361979 3.3380121e-39
1.8024484 0.093144 0.37362063 3.3380121e-39
1.8024485 0.089886069 0.37362152 3.3380121e-39
1.8024485 0.086628169 0.37362236 3.3380121e-39
1.8024486 0.083370291 0.37362319 3.3380121e-39
1.8024486 0.080112442 0.37362403 3.3380121e-39
1.8024486 0.076854609 0.37362486 3.3380121e-39
1.8024485 0.073596805 0.37362576 3.3380121e-39
1.8024486 0.070339024 0.37362659 3.3380121e-39
1.8024486 0.067081265 0.37362742 3.3380121e-39
1.8024487 0.063823536 0.37362826 3.3380121e-39
1.8024487 0.060565837 0.37362909 3.3380121e-39
1.8024489 0.057308156 0.37362993 3.3380121e-39
1.8024487 0.054050498 0.37363079 3.3380121e-39
1.8024489 0.050792865 0.37363163 3.3380121e-39
1.8024487 0.047535252 0.37363249 3.3380121e-39
1.8024489 0.044277675 0.37363333 3.3380121e-39
1.8024489 0.041020114 0.37363416 3.3380121e-39
1.802449 0.037762582 0.37363499 3.3380121e-39
1.8024489 0.034505066 0.37363586 3.3380121e-39
1.8024489 0.031247582 0.37363669 3.3380121e-39
1.802449 0.027990125 0.37363753 3.3380121e-39
1.802449 0.024732688 0.37363836 3.3380121e-39
1.802449 0.021475276 0.37363923 3.3380121e-39
1.8024491 0.018217891 0.37364006 3.3380121e-39
1.802449 0.014960527 0.37364092 3.3380121e-39
1.802449 0.011703191 0.37364176 3.3380121e-39
1.8024491 0.0084458785 0.37364259 3.3380121e-39
1.8024491 0.0051885908 0.37364343 3.3380121e-39
1.8024492 0.0019313272 0.37364429 3.3380121e-39
1.8024492 -0.0013259116 0.37364513 3.3380121e-39
1.8024491 -0.004583125 0.37364599 3.3380121e-39
1.8024491 -0.0078403149 0.37364683 3.3380121e-39
1.8024492 -0.011097479 0.37364766 3.3380121e-39
1.8024492 -0.014354619 0.37364852 3.3380121e-39
1.8024492 -0.017611735 0.37364936 3.3380121e-39
1.8024493 -0.020868827 0.37365019 3.3380121e-39
1.8024493 -0.024125893 0.37365103 3.3380121e-39
1.8024492 -0.027382933 0.37365189 3.3380121e-39
1.8024492 -0.03063995 0.37365273 3.3380121e-39
1.8024493 -0.033896942 0.37365359 3.3380121e-39
1.8024493 -0.037153911 0.37365443 3.3380121e-39
1.8024495 -0.040410854 0.37365526 3.3380121e-39
1.8024495 -0.043667771 0.37365609 3.3380121e-39
1.8024493 -0.046924658 0.37365696 3.3380121e-39
1.8024493 -0.05018153 0.37365782 3.3380121e-39
1.8024495 -0.053438377 0.37365866 3.3380121e-39
1.8024495 -0.056695197 0.37365949 3.3380121e-39
1.8024496 -0.059951998 0.37366033 3.3380121e-39
1.8024496 -0.063208766 0.37366116 3.3380121e-39
1.8024493 -0.066465504 0.37366202 3.3380121e-39
1.8024495 -0.069722228 0.37366289 3.3380121e-39
1.8024495 -0.072978929 0.37366372 3.3380121e-39
1.8024496 -0.0762356 0.37366456 3.3380121e-39
1.8024496 -0.079492249 0.37366539 3.3380121e-39
1.8024497 -0.082748875 0.37366623 3.3380121e-39
1.8024496 -0.086005464 0.37366709 3.3380121e-39
1.8024497 -0.089262053 0.37366796 3.3380121e-39
1.8024497 -0.092518598 0.37366879 3.3380121e-39
1.8024498 -0.095775127 0.37366962 3.3380121e-39
1.8024498 -0.09903162 0.37367046 3.3380121e-39
1.8024498 -0.1022881 0.37367129 3.3380121e-39
1.8024497 -0.10554454 0.37367216 3.3380121e-39
1.8024497 -0.10880096 0.37367302 3.3380121e-39
1.8024498 -0.11205737 0.37367386 3.3380121e-39
1.8024498 -0.11531375 0.37367469 3.3380121e-39
1.8024499 -0.1185701 0.37367553 3.3380121e-39
1.8024499 -0.12182643 0.37367636 3.3380121e-39
1.8024501 -0.12508273 0.37367719 3.3380121e-39
1.8024498 -0.12833898 0.37367809 3.3380121e-39
1.8024499 -0.13159524 0.37367892 3.3380121e-39
1.8024499 -0.13485147 0.37367976 3.3380121e-39
1.8024499 -0.13810767 0.37368059 3.3380121e-39
1.8024501 -0.14136386 0.37368143 3.3380121e-39
1.8024501 -0.14462002 0.37368226 3.3380121e-39
1.8024499 -0.14787613 0.37368315 3.3380121e-39
1.8024499 -0.15113224 0.37368399 3.3380121e-39
1.8024501 -0.15438832 0.37368482 3.3380121e-39
1.8024501 -0.15764438 0.37368566 3.3380121e-39
1.8024502 -0.16090041 0.37368649 3.3380121e-39
1.8024502 -0.16415642 0.37368733 3.3380121e-39
1.8024501 -0.1674124 0.37368819 3.3380121e-39
1.8024502 -0.17066836 0.37368903 3.3380121e-39
1.8024502 -0.1739243 0.37368986 3.3380121e-39
1.8024503 -0.1771802 0.37369072 3.3380121e-39
1.8024503 -0.1804361 0.37369156 3.3380121e-39
1.8024504 -0.18369195 0.37369239 3.3380121e-39
1.8024502 -0.18694778 0.37369326 3.3380121e-39
1.8024503 -0.19020358 0.37369409 3.3380121e-39
1.8024503 -0.19345938 0.37369496 3.3380121e-39
1.8024503 -0.19671513 0.37369579 3.3380121e-39
1.8024504 -0.19997089 0.37369663 3.3380121e-39
1.8024504 -0.2032266 0.37369746 3.3380121e-39
1.8024505 -0.20648229 0.37369829 3.3380121e-39
1.8024503 -0.20973791 0.37369916 3.3380121e-39
1.8024504 -0.21299356 0.37370002 3.3380121e-39
1.8024504 -0.21624915 0.37370086 3.3380121e-39
1.8024505 -0.21950476 0.37370169 3.3380121e-39
1.8024505 -0.22276033 0.37370253 3.3380121e-39
1.8024505 -0.22601587 0.37370336 3.3380121e-39
1.8024505 -0.22927138 0.37370422 3.3380121e-39
1.8024505 -0.23252687 0.37370509 3.3380121e-39
1.8024505 -0.23578233 0.37370592 3.3380121e-39
1.8024505 -0.23903777 0.37370676 3.3380121e-39
1.8024505 -0.24229318 0.37370759 3.3380121e-39
1.8024507 -0.24554858 0.37370843 3.3380121e-39
1.8024507 -0.24880393 0.37370926 3.3380121e-39
1.8024505 -0.25205925 0.37371016 3.3380121e-39
1.8024505 -0.25531459 0.37371099 3.3380121e-39
1.8024507 -0.2585699 0.37371182 3.3380121e-39
1.8024507 -0.26182511 0.37371266 3.3380121e-39
1.8024508 -0.26508039 0.37371349 3.3380121e-39
1.8024508 -0.26833561 0.37371436 3.3380121e-39
1.8024508 -0.27159083 0.37371519 3.3380121e-39
1.8024483 0.14853261 0.37034848 3.3380121e-39
1.8024483 0.14527425 0.37034935 3.3380121e-39
1.8024483 0.14201593 0.37035021 3.3380121e-39
1.8024483 0.13875763 0.37035108 3.3380121e-39
1.8024482 0.13549934 0.37035191 3.3380121e-39
1.8024483 0.1322411 0.37035277 3.3380121e-39
1.8024483 0.12898287 0.37035364 3.3380121e-39
1.8024483 0.12572467 0.3703545 3.3380121e-39
1.8024483 0.12246649 0.37035537 3.3380121e-39
2.1224453 0.14038014 0.32965204 3.3380121e-39
2.1224456 0.13654453 0.32965305 3.3380121e-39
2.1224456 0.13270894 0.32965407 3.3380121e-39
2.1224451 0.12887335 0.32965511 3.3380121e-39
2.1398501 -0.24889113 0.32754108 3.3380121e-39
2.112448 -0.24952595 0.33102638 3.3380121e-39
2.112448 -0.25334057 0.33102742 3.3380121e-39
2.112448 -0.25715515 0.3310284 3.3380121e-39
2.112448 -0.26096973 0.33102942 3.3380121e-39
2.112448 -0.26478431 0.3310304 3.3380121e-39
2.1124477 -0.26859879 0.33103144 3.3380121e-39
2.1124477 -0.27241328 0.33103245 3.3380121e-39
1.8271118 -0.24889952 0.36731648 3.3380121e-39
1.8030982 -0.24889308 0.37037063 3.3380121e-39
1.8024504 -0.25205922 0.37045389 3.3380121e-39
1.8024505 -0.25531459 0.37045473 3.3380121e-39
1.8024505 -0.25856987 0.37045556 3.3380121e-39
1.8024507 -0.26182511 0.37045643 3.3380121e-39
1.8024507 -0.26508036 0.37045729 3.3380121e-39
1.8024507 -0.26833558 0.37045813 3.3380121e-39
1.8024508 -0.2715908 0.37045899 3.3380121e-39
1.802448 0.14853258 0.3670907 3.3380121e-39
1.802448 0.14527425 0.3670916 3.3380121e-39
1.8024479 0.14201592 0.36709249 3.3380121e-39
1.8024479 0.13875762 0.36709332 3.3380121e-39
1.802448 0.13549934 0.36709422 3.3380121e-39
1.802448 0.1322411 0.36709505 3.3380121e-39
1.8024482 0.12898287 0.36709592 3.3380121e-39
1.8024482 0.12572467 0.36709678 3.3380121e-39
1.8043841 0.12259807 0.36684793 3.3380121e-39
2.1224451 0.14038014 0.32581696 3.3380121e-39
2.1224451 0.13654451 0.325818 3.3380121e-39
2.1224453 0.13270894 0.32581899 3.3380121e-39
2.1224451 0.12887335 0.32582006 3.3380121e-39
2.1398501 -0.24889107 0.32367608 3.3380121e-39
2.1124477 -0.24952592 0.32721081 3.3380121e-39
2.1124477 -0.25334054 0.32721186 3.3380121e-39
2.1124477 -0.25715512 0.32721287 3.3380121e-39
2.1124475 -0.26096967 0.32721391 3.3380121e-39
2.1124477 -0.26478428 0.3272149 3.3380121e-39
2.1124477 -0.26859877 0.32721594 3.3380121e-39
2.1124475 -0.27241325 0.32721695 3.3380121e-39
1.8271115 -0.24889943 0.36401576 3.3380121e-39
1.803098 -0.24889302 0.36711323 3.3380121e-39
1.8024503 -0.25205919 0.36719763 3.3380121e-39
1.8024503 -0.25531453 0.36719847 3.3380121e-39
1.8024503 -0.25856984 0.36719936 3.3380121e-39
1.8024504 -0.26182508 0.3672002 3.3380121e-39
1.8024502 -0.2650803 0.36720109 3.3380121e-39
1.8024503 -0.26833552 0.36720198 3.3380121e-39
1.8024503 -0.27159074 0.36720282 3.3380121e-39
1.8024478 0.14853258 0.36383295 3.3380121e-39
1.8024478 0.14527422 0.36383384 3.3380121e-39
1.8024478 0.1420159 0.36383471 3.3380121e-39
1.8024478 0.13875762 0.3638356 3.3380121e-39
1.8024478 0.13549933 0.36383647 3.3380121e-39
1.8024479 0.1322411 0.36383736 3.3380121e-39
1.8024478 0.12898286 0.36383826 3.3380121e-39
1.8024479 0.12572466 0.36383915 3.3380121e-39
1.8104615 0.12301115 0.36279172 3.3380121e-39
2.1224449 0.14038014 0.32198188 3.3380121e-39
2.1224449 0.13654451 0.32198295 3.3380121e-39
2.1224451 0.13270894 0.32198393 3.3380121e-39
2.1224449 0.12887335 0.32198504 3.3380121e-39
2.1398499 -0.24889104 0.31981108 3.3380121e-39
2.1124477 -0.24952586 0.32339525 3.3380121e-39
2.1124473 -0.25334045 0.32339633 3.3380121e-39
2.1124475 -0.25715506 0.32339734 3.3380121e-39
2.1124475 -0.26096961 0.32339838 3.3380121e-39
2.1124473 -0.26478416 0.32339942 3.3380121e-39
2.1124475 -0.26859871 0.32340044 3.3380121e-39
2.1124475 -0.27241319 0.32340148 3.3380121e-39
1.8271112 -0.2488994 0.36071497 3.3380121e-39
1.8030978 -0.24889299 0.36385578 3.3380121e-39
1.8024499 -0.25205913 0.36394137 3.3380121e-39
1.8024499 -0.25531447 0.36394227 3.3380121e-39
1.8024501 -0.25856975 0.36394313 3.3380121e-39
1.8024501 -0.26182503 0.36394399 3.3380121e-39
1.8024502 -0.26508024 0.36394489 3.3380121e-39
1.8024502 -0.26833546 0.36394578 3.3380121e-39
1.8024503 -0.27159068 0.36394662 3.3380121e-39
1.8024476 0.14853257 0.3605752 3.3380121e-39
1.8024476 0.14527422 0.36057609 3.3380121e-39
1.8024477 0.1420159 0.36057699 3.3380121e-39
1.8024477 0.13875762 0.36057785 3.3380121e-39
1.8024476 0.13549933 0.36057878 3.3380121e-39
1.8024476 0.13224109 0.36057967 3.3380121e-39
1.8024477 0.12898286 0.36058056 3.3380121e-39
1.8024477 0.12572466 0.36058146 3.3380121e-39
1.8165796 0.12342699 0.3587082 3.3380121e-39
2.1224449 0.14038014 0.3181468 3.3380121e-39
2.1224446 0.13654451 0.31814787 3.3380121e-39
2.1224446 0.13270892 0.31814891 3.3380121e-39
2.1224446 0.12887335 0.31814998 3.3380121e-39
2.1398497 -0.24889098 0.31594604 3.3380121e-39
2.1124473 -0.2495258 0.31957969 3.3380121e-39
2.112447 -0.25334042 0.31958076 3.3380121e-39
2.1124473 -0.25715503 0.31958178 3.3380121e-39
2.1124473 -0.26096958 0.31958285 3.3380121e-39
2.112447 -0.26478413 0.31958392 3.3380121e-39
2.1124473 -0.26859868 0.31958497 3.3380121e-39
2.1124473 -0.27241316 0.31958601 3.3380121e-39
1.8271112 -0.24889937 0.35741419 3.3380121e-39
1.8030984 -0.24889308 0.36059821 3.3380121e-39
1.8024497 -0.25205907 0.36068511 3.3380121e-39
1.8024498 -0.25531444 0.360686 3.3380121e-39
1.8024498 -0.25856972 0.3606869 3.3380121e-39
1.8024499 -0.26182497 0.36068779 3.3380121e-39
1.8024499 -0.26508021 0.36068869 3.3380121e-39
1.8024499 -0.26833546 0.36068958 3.3380121e-39
1.8024501 -0.27159065 0.36069047 3.3380121e-39
1.8024472 0.15179092 0.35731649 3.3380121e-39
1.8024473 0.14853255 0.35731739 3.3380121e-39
1.8024473 0.14527421 0.35731834 3.3380121e-39
1.8024474 0.14201589 0.35731924 3.3380121e-39
1.8024473 0.13875757 0.35732013 3.3380121e-39
1.8024474 0.1354993 0.35732102 3.3380121e-39
1.8024473 0.13224107 0.35732195 3.3380121e-39
1.8024474 0.12898284 0.35732284 3.3380121e-39
1.8024474 0.12572466 0.35732377 3.3380121e-39
1.8227397 0.12384567 0.35459697 3.3380121e-39
2.1224446 0.14038014 0.31431171 3.3380121e-39
2.1224446 0.13654451 0.31431279 3.3380121e-39
2.1224444 0.13270892 0.31431386 3.3380121e-39
2.1224444 0.12887335 0.31431493 3.3380121e-39
2.1398492 -0.24889092 0.31208107 3.3380121e-39
2.112447 -0.24952574 0.31576413 3.3380121e-39
2.112447 -0.25334036 0.31576523 3.3380121e-39
2.112447 -0.257155 0.31576625 3.3380121e-39
2.112447 -0.26096952 0.31576735 3.3380121e-39
2.112447 -0.26478407 0.31576839 3.3380121e-39
2.1124468 -0.26859859 0.31576949 3.3380121e-39
2.112447 -0.2724131 0.31577051 3.3380121e-39
1.827111 -0.24889934 0.35411346 3.3380121e-39
1.8030992 -0.24889311 0.35734069 3.3380121e-39
1.8024496 -0.25205901 0.35742885 3.3380121e-39
1.8024496 -0.25531435 0.35742974 3.3380121e-39
1.8024498 -0.25856966 0.35743064 3.3380121e-39
1.8024497 -0.26182491 0.35743156 3.3380121e-39
1.8024498 -0.26508015 0.35743245 3.3380121e-39
1.8024497 -0.26833537 0.35743338 3.3380121e-39
1.8024497 -0.27159056 0.35743427 3.3380121e-39
1.8024472 0.15179092 0.35405871 3.3380121e-39
1.8024472 0.14853255 0.35405964 3.3380121e-39
1.8024471 0.14527419 0.35406059 3.3380121e-39
1.8024471 0.14201587 0.35406148 3.3380121e-39
1.8024472 0.13875757 0.35406238 3.3380121e-39
1.8024472 0.1354993 0.35406333 3.3380121e-39
1.8024473 0.13224107 0.35406423 3.3380121e-39
1.8024473 0.12898284 0.35406512 3.3380121e-39
1.8024472 0.12572464 0.35406607 3.3380121e-39
2.1224442 0.14421578 0.31047559 3.3380121e-39
2.1224442 0.14038013 0.31047666 3.3380121e-39
2.1224444 0.13654451 0.31047773 3.3380121e-39
2.1224444 0.13270892 0.31047881 3.3380121e-39
2.1224439 0.12887333 0.31047994 3.3380121e-39
2.1398489 -0.24889086 0.30821607 3.3380121e-39
2.1124468 -0.24952571 0.31194857 3.3380121e-39
2.1124468 -0.25334033 0.31194967 3.3380121e-39
2.1124468 -0.25715494 0.31195074 3.3380121e-39
2.1124465 -0.26096946 0.31195185 3.3380121e-39
2.1124468 -0.26478404 0.31195289 3.3380121e-39
2.1124468 -0.26859856 0.31195399 3.3380121e-39
2.1124465 -0.27241305 0.31195506 3.3380121e-39
1.8271108 -0.24889925 0.35081267 3.3380121e-39
1.8030998 -0.2488932 0.35408312 3.3380121e-39
1.8024492 -0.25205898 0.35417265 3.3380121e-39
1.8024495 -0.25531435 0.35417351 3.3380121e-39
1.8024493 -0.2585696 0.35417444 3.3380121e-39
1.8024493 -0.26182485 0.35417536 3.3380121e-39
1.8024495 -0.26508009 0.35417628 3.3380121e-39
1.8024495 -0.26833534 0.35417718 3.3380121e-39
1.8024496 -0.27159053 0.3541781 3.3380121e-39
1.802447 0.15179092 0.35080093 3.3380121e-39
1.8024468 0.14853254 0.35080189 3.3380121e-39
1.8024468 0.14527418 0.35080284 3.3380121e-39
1.802447 0.14201587 0.35080373 3.3380121e-39
1.802447 0.13875757 0.35080469 3.3380121e-39
1.8024471 0.1354993 0.35080558 3.3380121e-39
1.802447 0.13224106 0.35080653 3.3380121e-39
1.8024471 0.12898284 0.35080746 3.3380121e-39
1.802447 0.12572464 0.35080841 3.3380121e-39
2.1224439 0.14421578 0.30664048 3.3380121e-39
2.1224439 0.14038013 0.30664158 3.3380121e-39
2.1224439 0.1365445 0.30664268 3.3380121e-39
2.1224442 0.13270892 0.30664375 3.3380121e-39
2.1224439 0.12887333 0.30664489 3.3380121e-39
2.1398489 -0.24889086 0.30435106 3.3380121e-39
2.1124463 -0.24952562 0.30813304 3.3380121e-39
2.1124463 -0.25334024 0.30813414 3.3380121e-39
2.1124465 -0.25715488 0.30813521 3.3380121e-39
2.1124463 -0.2609694 0.30813631 3.3380121e-39
2.1124465 -0.26478398 0.30813739 3.3380121e-39
2.1124465 -0.2685985 0.30813849 3.3380121e-39
2.1124463 -0.27241299 0.30813959 3.3380121e-39
1.8271105 -0.24889924 0.34751192 3.3380121e-39
1.8031005 -0.24889325 0.35082555 3.3380121e-39
1.8024491 -0.25205895 0.35091636 3.3380121e-39
1.8024492 -0.25531429 0.35091728 3.3380121e-39
1.8024492 -0.25856957 0.3509182 3.3380121e-39
1.8024493 -0.26182485 0.35091913 3.3380121e-39
1.8024493 -0.26508009 0.35092008 3.3380121e-39
1.8024495 -0.26833531 0.35092098 3.3380121e-39
1.8024495 -0.2715905 0.35092193 3.3380121e-39
1.802447 0.15179092 0.34754315 3.3380121e-39
1.8024467 0.14853254 0.3475441 3.3380121e-39
1.8024468 0.14527419 0.34754506 3.3380121e-39
1.8024468 0.14201587 0.34754598 3.3380121e-39
1.802447 0.13875757 0.34754694 3.3380121e-39
1.8024467 0.13549928 0.34754792 3.3380121e-39
1.8024467 0.13224106 0.34754884 3.3380121e-39
1.8024468 0.12898283 0.3475498 3.3380121e-39
1.8024468 0.12572464 0.34755072 3.3380121e-39
2.1224439 0.14421578 0.30280539 3.3380121e-39
2.1224437 0.14038013 0.3028065 3.3380121e-39
2.1224437 0.1365445 0.30280763 3.3380121e-39
2.1224437 0.13270891 0.30280873 3.3380121e-39
2.1274526 0.12917763 0.30210942 3.3380121e-39
2.1398487 -0.2488908 0.30048606 3.3380121e-39
2.1124463 -0.24952559 0.30431747 3.3380121e-39
2.1124461 -0.25334021 0.30431861 3.3380121e-39
2.1124463 -0.25715485 0.30431968 3.3380121e-39
2.1124463 -0.26096937 0.30432081 3.3380121e-39
2.1124461 -0.26478392 0.30432191 3.3380121e-39
2.1124463 -0.26859847 0.30432302 3.3380121e-39
2.1124463 -0.27241296 0.30432412 3.3380121e-39
1.8271103 -0.24889921 0.34421116 3.3380121e-39
1.8031009 -0.24889331 0.34756804 3.3380121e-39
1.802449 -0.25205889 0.34766009 3.3380121e-39
1.802449 -0.25531423 0.34766105 3.3380121e-39
1.8024491 -0.25856951 0.34766197 3.3380121e-39
1.8024491 -0.26182479 0.34766293 3.3380121e-39
1.8024491 -0.26508 0.34766382 3.3380121e-39
1.8024492 -0.26833525 0.34766477 3.3380121e-39
1.8024492 -0.27159044 0.3476657 3.3380121e-39
1.8024465 0.15179089 0.34428543 3.3380121e-39
1.8024465 0.14853254 0.34428635 3.3380121e-39
1.8024466 0.14527418 0.34428731 3.3380121e-39
1.8024464 0.14201586 0.34428829 3.3380121e-39
1.8024465 0.13875756 0.34428924 3.3380121e-39
1.8024465 0.13549928 0.3442902 3.3380121e-39
1.8024466 0.13224104 0.34429112 3.3380121e-39
1.8024466 0.12898283 0.3442921 3.3380121e-39
1.8024466 0.12572463 0.34429306 3.3380121e-39
2.1224434 0.14421576 0.29897031 3.3380121e-39
2.1224437 0.14038013 0.29897141 3.3380121e-39
2.1224434 0.1365445 0.29897255 3.3380121e-39
2.1224434 0.13270891 0.29897368 3.3380121e-39
2.1357667 0.1296827 0.29708776 3.3380121e-39
2.1398482 -0.24889074 0.29662108 3.3380121e-39
2.1124461 -0.24952553 0.30050191 3.3380121e-39
2.1124461 -0.25334015 0.30050305 3.3380121e-39
2.1124461 -0.25715479 0.30050415 3.3380121e-39
2.1124461 -0.26096931 0.30050528 3.3380121e-39
2.1124458 -0.26478386 0.30050641 3.3380121e-39
2.1124458 -0.26859838 0.30050755 3.3380121e-39
2.1124461 -0.2724129 0.30050865 3.3380121e-39
1.8271103 -0.24889915 0.34091038 3.3380121e-39
1.8031014 -0.24889337 0.34431049 3.3380121e-39
1.8024487 -0.25205886 0.34440383 3.3380121e-39
1.8024489 -0.2553142 0.34440482 3.3380121e-39
1.8024489 -0.25856948 0.34440574 3.3380121e-39
1.8024487 -0.26182473 0.34440672 3.3380121e-39
1.8024489 -0.26507998 0.34440765 3.3380121e-39
1.8024489 -0.26833519 0.3444086 3.3380121e-39
1.802449 -0.27159038 0.34440956 3.3380121e-39
1.8024464 0.15179089 0.34102762 3.3380121e-39
1.8024465 0.14853252 0.34102857 3.3380121e-39
1.8024462 0.14527416 0.34102958 3.3380121e-39
1.8024464 0.14201584 0.34103051 3.3380121e-39
1.8024464 0.13875754 0.34103149 3.3380121e-39
1.8024465 0.13549927 0.34103248 3.3380121e-39
1.8024465 0.13224104 0.3410334 3.3380121e-39
1.8024464 0.1289828 0.34103441 3.3380121e-39
1.8024464 0.12572461 0.34103537 3.3380121e-39
2.1224432 0.14421576 0.29513523 3.3380121e-39
2.1224432 0.14038011 0.29513636 3.3380121e-39
2.1224434 0.1365445 0.29513749 3.3380121e-39
2.1224432 0.13270891 0.29513863 3.3380121e-39
2.139848 -0.24889068 0.29275608 3.3380121e-39
2.1124458 -0.2495255 0.29668635 3.3380121e-39
2.1124458 -0.25334013 0.29668751 3.3380121e-39
2.1124456 -0.25715473 0.29668865 3.3380121e-39
2.1124456 -0.26096925 0.29668981 3.3380121e-39
2.1124458 -0.26478383 0.29669091 3.3380121e-39
2.1124456 -0.26859832 0.29669207 3.3380121e-39
2.1124458 -0.27241287 0.29669315 3.3380121e-39
1.8271098 -0.24889909 0.33760965 3.3380121e-39
1.8031021 -0.24889342 0.34105292 3.3380121e-39
1.8024484 -0.25205877 0.3411476 3.3380121e-39
1.8024485 -0.25531411 0.34114859 3.3380121e-39
1.8024485 -0.25856939 0.34114954 3.3380121e-39
1.8024486 -0.26182467 0.34115049 3.3380121e-39
1.8024486 -0.26507989 0.34115145 3.3380121e-39
1.8024487 -0.26833513 0.34115243 3.3380121e-39
1.8024487 -0.27159032 0.34115335 3.3380121e-39
1.8024462 0.15179087 0.33776984 3.3380121e-39
1.802446 0.14853249 0.33777082 3.3380121e-39
1.8024461 0.14527415 0.33777183 3.3380121e-39
1.8024461 0.14201584 0.33777279 3.3380121e-39
1.8024462 0.13875754 0.33777377 3.3380121e-39
1.802446 0.13549925 0.33777478 3.3380121e-39
1.8024461 0.13224103 0.33777574 3.3380121e-39
1.8024461 0.1289828 0.33777672 3.3380121e-39
1.8024462 0.12572461 0.33777767 3.3380121e-39
2.122443 0.14421576 0.29130015 3.3380121e-39
2.122443 0.14038011 0.29130128 3.3380121e-39
2.122443 0.13654448 0.29130247 3.3380121e-39
2.1224432 0.13270891 0.29130358 3.3380121e-39
2.1398478 -0.24889065 0.28889108 3.3380121e-39
2.1124454 -0.24952541 0.29287082 3.3380121e-39
2.1124456 -0.25334007 0.29287195 3.3380121e-39
2.1124456 -0.25715467 0.29287311 3.3380121e-39
2.1124454 -0.26096919 0.29287428 3.3380121e-39
2.1124456 -0.26478377 0.29287541 3.3380121e-39
2.1124456 -0.26859826 0.29287657 3.3380121e-39
2.1124454 -0.27241278 0.29287773 3.3380121e-39
1.8271097 -0.24889906 0.33430889 3.3380121e-39
1.8031027 -0.24889351 0.33779538 3.3380121e-39
1.8024483 -0.25205874 0.33789137 3.3380121e-39
1.8024483 -0.25531408 0.33789235 3.3380121e-39
1.8024484 -0.25856936 0.33789331 3.3380121e-39
1.8024484 -0.26182464 0.33789429 3.3380121e-39
1.8024486 -0.26507989 0.33789521 3.3380121e-39
1.8024485 -0.2683351 0.33789623 3.3380121e-39
1.8024485 -0.27159029 0.33789718 3.3380121e-39
1.8024459 0.15179086 0.33451208 3.3380121e-39
1.8024459 0.14853251 0.33451304 3.3380121e-39
1.802446 0.14527416 0.33451405 3.3380121e-39
1.802446 0.14201584 0.33451501 3.3380121e-39
1.8024459 0.13875753 0.33451605 3.3380121e-39
1.8024459 0.13549925 0.33451706 3.3380121e-39
1.802446 0.13224103 0.33451802 3.3380121e-39
1.802446 0.1289828 0.33451903 3.3380121e-39
1.80531 0.12592444 0.33409885 3.3380121e-39
2.1224425 0.14421575 0.28746507 3.3380121e-39
2.1224427 0.14038011 0.2874662 3.3380121e-39
2.1224427 0.13654448 0.28746739 3.3380121e-39
2.1224427 0.13270888 0.28746855 3.3380121e-39
2.1398475 -0.24889056 0.2850261 3.3380121e-39
2.1124454 -0.24952538 0.28905526 3.3380121e-39
2.1124454 -0.25334004 0.28905642 3.3380121e-39
2.1124454 -0.25715464 0.28905758 3.3380121e-39
2.1124451 -0.26096916 0.28905877 3.3380121e-39
2.1124454 -0.26478374 0.28905988 3.3380121e-39
2.1124454 -0.26859823 0.28906107 3.3380121e-39
2.1124451 -0.27241275 0.28906223 3.3380121e-39
1.8271096 -0.248899 0.33100814 3.3380121e-39
1.8031032 -0.24889354 0.3345378 3.3380121e-39
1.8024482 -0.25205868 0.33463508 3.3380121e-39
1.8024483 -0.25531402 0.33463609 3.3380121e-39
1.8024483 -0.25856933 0.33463705 3.3380121e-39
1.8024483 -0.26182458 0.33463806 3.3380121e-39
1.8024484 -0.26507983 0.33463904 3.3380121e-39
1.8024482 -0.26833501 0.33464006 3.3380121e-39
1.8024483 -0.2715902 0.33464104 3.3380121e-39
1.8024457 0.15504925 0.33125329 3.3380121e-39
1.8024457 0.15179086 0.3312543 3.3380121e-39
1.8024458 0.14853249 0.33125529 3.3380121e-39
1.8024455 0.14527413 0.33125633 3.3380121e-39
1.8024457 0.14201583 0.33125731 3.3380121e-39
1.8024457 0.13875753 0.33125833 3.3380121e-39
1.8024458 0.13549925 0.33125934 3.3380121e-39
1.8024458 0.13224103 0.33126032 3.3380121e-39
1.8024459 0.1289828 0.33126134 3.3380121e-39
1.8113937 0.12634893 0.32993037 3.3380121e-39
2.1224425 0.14421575 0.28362998 3.3380121e-39
2.1224422 0.1403801 0.28363118 3.3380121e-39
2.1224425 0.13654448 0.28363234 3.3380121e-39
2.1224425 0.13270888 0.2836335 3.3380121e-39
2.1398473 -0.24889053 0.2811611 3.3380121e-39
2.1124451 -0.24952532 0.2852397 3.3380121e-39
2.1124449 -0.25333995 0.28524089 3.3380121e-39
2.1124451 -0.25715458 0.28524205 3.3380121e-39
2.1124451 -0.2609691 0.28524324 3.3380121e-39
2.1124449 -0.26478365 0.28524444 3.3380121e-39
2.1124449 -0.26859814 0.28524563 3.3380121e-39
2.1124451 -0.27241266 0.28524676 3.3380121e-39
1.8271092 -0.24889897 0.32770741 3.3380121e-39
1.8031039 -0.24889363 0.33128026 3.3380121e-39
1.8024479 -0.25205866 0.33137885 3.3380121e-39
1.8024479 -0.25531399 0.33137986 3.3380121e-39
1.8024479 -0.25856927 0.33138084 3.3380121e-39
1.802448 -0.26182452 0.33138186 3.3380121e-39
1.802448 -0.26507977 0.33138284 3.3380121e-39
1.8024482 -0.26833501 0.33138385 3.3380121e-39
1.8024482 -0.27159017 0.33138484 3.3380121e-39
1.8024455 0.15504926 0.32799548 3.3380121e-39
1.8024457 0.15179086 0.32799652 3.3380121e-39
1.8024454 0.14853249 0.32799754 3.3380121e-39
1.8024455 0.14527415 0.32799855 3.3380121e-39
1.8024455 0.14201583 0.32799956 3.3380121e-39
1.8024457 0.13875754 0.32800058 3.3380121e-39
1.8024457 0.13549927 0.32800162 3.3380121e-39
1.8024455 0.13224101 0.32800263 3.3380121e-39
1.8024455 0.12898278 0.32800364 3.3380121e-39
1.8175182 0.12677626 0.32573375 3.3380121e-39
2.1224422 0.14421575 0.2797949 3.3380121e-39
2.1224422 0.1403801 0.27979609 3.3380121e-39
2.122442 0.13654447 0.27979732 3.3380121e-39
2.1224422 0.13270888 0.27979848 3.3380121e-39
2.139847 -0.24889047 0.2772961 3.3380121e-39
2.1124449 -0.24952529 0.28142413 3.3380121e-39
2.1124449 -0.25333992 0.28142536 3.3380121e-39
2.1124446 -0.25715452 0.28142655 3.3380121e-39
2.1124449 -0.26096907 0.28142774 3.3380121e-39
2.1124449 -0.26478362 0.28142893 3.3380121e-39
2.1124446 -0.26859811 0.28143016 3.3380121e-39
2.1124449 -0.27241263 0.28143129 3.3380121e-39
1.827109 -0.24889891 0.32440665 3.3380121e-39
1.8031045 -0.24889372 0.32802269 3.3380121e-39
1.8024477 -0.25205863 0.32812262 3.3380121e-39
1.8024477 -0.25531396 0.32812363 3.3380121e-39
1.8024478 -0.25856924 0.32812464 3.3380121e-39
1.8024478 -0.26182449 0.32812566 3.3380121e-39
1.8024479 -0.26507974 0.32812664 3.3380121e-39
1.8024479 -0.26833495 0.32812768 3.3380121e-39
1.802448 -0.27159014 0.32812867 3.3380121e-39
1.8024454 0.15504925 0.3247377 3.3380121e-39
1.8024452 0.15179084 0.32473877 3.3380121e-39
1.8024453 0.14853248 0.32473978 3.3380121e-39
1.8024453 0.14527413 0.32474083 3.3380121e-39
1.8024454 0.14201583 0.32474181 3.3380121e-39
1.8024454 0.13875753 0.32474285 3.3380121e-39
1.8024453 0.13549924 0.32474393 3.3380121e-39
1.8024453 0.13224101 0.32474494 3.3380121e-39
1.8024453 0.12898278 0.32474598 3.3380121e-39
1.8236846 0.1272065 0.32150874 3.3380121e-39
2.122442 0.14421575 0.27595982 3.3380121e-39
2.122442 0.1403801 0.27596101 3.3380121e-39
2.122442 0.13654445 0.27596226 3.3380121e-39
2.122442 0.13270886 0.27596346 3.3380121e-39
2.1398468 -0.24889044 0.27343109 3.3380121e-39
2.1124444 -0.2495252 0.2776086 3.3380121e-39
2.1124446 -0.25333986 0.27760983 3.3380121e-39
2.1124444 -0.25715446 0.27761102 3.3380121e-39
2.1124444 -0.26096898 0.27761224 3.3380121e-39
2.1124446 -0.26478356 0.27761343 3.3380121e-39
2.1124444 -0.26859805 0.27761465 3.3380121e-39
2.1124446 -0.27241257 0.27761582 3.3380121e-39
1.8271089 -0.24889888 0.3211059 3.3380121e-39
1.8031051 -0.24889378 0.32476512 3.3380121e-39
1.8024474 -0.25205854 0.32486635 3.3380121e-39
1.8024476 -0.25531387 0.3248674 3.3380121e-39
1.8024476 -0.25856918 0.32486841 3.3380121e-39
1.8024477 -0.26182443 0.32486945 3.3380121e-39
1.8024477 -0.26507965 0.32487047 3.3380121e-39
1.8024477 -0.2683349 0.32487148 3.3380121e-39
1.8024477 -0.27159005 0.32487252 3.3380121e-39
1.8024451 0.15504922 0.32147992 3.3380121e-39
1.8024451 0.15179083 0.32148099 3.3380121e-39
1.8024452 0.14853248 0.321482 3.3380121e-39
1.8024452 0.14527413 0.32148305 3.3380121e-39
1.8024451 0.1420158 0.32148409 3.3380121e-39
1.8024451 0.13875751 0.32148516 3.3380121e-39
1.8024452 0.13549924 0.3214862 3.3380121e-39
1.8024452 0.132241 0.32148722 3.3380121e-39
1.8024453 0.12898278 0.32148826 3.3380121e-39
2.1224415 0.14805141 0.27212352 3.3380121e-39
2.1224415 0.14421572 0.27212477 3.3380121e-39
2.1224418 0.1403801 0.27212593 3.3380121e-39
2.1224418 0.13654445 0.27212718 3.3380121e-39
2.1224418 0.13270886 0.2721284 3.3380121e-39
2.1398466 -0.24889039 0.26956609 3.3380121e-39
2.1124442 -0.24952517 0.27379304 3.3380121e-39
2.1124444 -0.25333983 0.27379426 3.3380121e-39
2.1124444 -0.25715443 0.27379549 3.3380121e-39
2.1124442 -0.26096895 0.27379674 3.3380121e-39
2.1124444 -0.26478353 0.27379793 3.3380121e-39
2.1124444 -0.26859802 0.27379918 3.3380121e-39
2.1124442 -0.27241251 0.2738004 3.3380121e-39
1.8271087 -0.24889882 0.31780511 3.3380121e-39
1.8031056 -0.24889381 0.32150757 3.3380121e-39
1.8024474 -0.25205854 0.32161009 3.3380121e-39
1.8024474 -0.25531387 0.32161117 3.3380121e-39
1.8024472 -0.25856912 0.32161221 3.3380121e-39
1.8024473 -0.26182437 0.32161325 3.3380121e-39
1.8024473 -0.26507962 0.32161427 3.3380121e-39
1.8024474 -0.26833484 0.32161531 3.3380121e-39
1.8024474 -0.27159002 0.32161635 3.3380121e-39
1.8024448 0.15504922 0.31822214 3.3380121e-39
1.8024449 0.15179083 0.31822321 3.3380121e-39
1.8024447 0.14853245 0.31822428 3.3380121e-39
1.8024448 0.1452741 0.31822532 3.3380121e-39
1.8024448 0.1420158 0.31822637 3.3380121e-39
1.8024449 0.1387575 0.31822744 3.3380121e-39
1.8024449 0.13549924 0.31822848 3.3380121e-39
1.8024451 0.132241 0.31822953 3.3380121e-39
1.8024448 0.12898277 0.31823063 3.3380121e-39
2.1224415 0.14805141 0.2682884 3.3380121e-39
2.1224413 0.14421572 0.26828966 3.3380121e-39
2.1224413 0.14038008 0.26829091 3.3380121e-39
2.1224415 0.13654445 0.26829213 3.3380121e-39
2.1224413 0.13270885 0.26829341 3.3380121e-39
2.1398466 -0.24889036 0.26570112 3.3380121e-39
2.1124442 -0.24952511 0.26997751 3.3380121e-39
2.1124442 -0.25333977 0.26997873 3.3380121e-39
2.1124442 -0.25715438 0.26997995 3.3380121e-39
2.1124442 -0.26096889 0.26998124 3.3380121e-39
2.1124439 -0.26478344 0.26998246 3.3380121e-39
2.1124439 -0.26859793 0.26998374 3.3380121e-39
2.1124439 -0.27241245 0.26998493 3.3380121e-39
1.8271084 -0.24889876 0.31450441 3.3380121e-39
1.8031062 -0.24889387 0.31825 3.3380121e-39
1.802447 -0.25205845 0.31835389 3.3380121e-39
1.802447 -0.25531375 0.31835496 3.3380121e-39
1.8024471 -0.25856906 0.31835598 3.3380121e-39
1.8024471 -0.26182431 0.31835705 3.3380121e-39
1.8024472 -0.26507953 0.31835809 3.3380121e-39
1.8024472 -0.26833478 0.31835914 3.3380121e-39
1.8024473 -0.27158996 0.31836018 3.3380121e-39
1.8024447 0.15504922 0.31496435 3.3380121e-39
1.8024447 0.15179083 0.31496543 3.3380121e-39
1.8024447 0.14853245 0.3149665 3.3380121e-39
1.8024447 0.14527412 0.31496757 3.3380121e-39
1.8024448 0.1420158 0.31496862 3.3380121e-39
1.8024448 0.13875751 0.31496969 3.3380121e-39
1.8024447 0.13549922 0.31497079 3.3380121e-39
1.8024447 0.132241 0.31497183 3.3380121e-39
1.8024448 0.12898277 0.31497291 3.3380121e-39
2.1224413 0.14805141 0.26445329 3.3380121e-39
2.1224413 0.14421572 0.26445457 3.3380121e-39
2.1224411 0.14038008 0.26445583 3.3380121e-39
2.1224413 0.13654445 0.26445708 3.3380121e-39
2.1287072 0.13310082 0.2634691 3.3380121e-39
2.1398461 -0.24889027 0.26183614 3.3380121e-39
2.1124439 -0.24952509 0.26616195 3.3380121e-39
2.1124437 -0.25333971 0.26616323 3.3380121e-39
2.1124437 -0.25715432 0.26616448 3.3380121e-39
2.1124439 -0.26096886 0.2661657 3.3380121e-39
2.1124437 -0.26478341 0.26616696 3.3380121e-39
2.1124437 -0.26859793 0.26616824 3.3380121e-39
2.1124439 -0.27241242 0.26616946 3.3380121e-39
1.8271083 -0.2488987 0.31120363 3.3380121e-39
1.8031069 -0.24889396 0.31499243 3.3380121e-39
1.8024468 -0.25205842 0.31509763 3.3380121e-39
1.802447 -0.25531375 0.3150987 3.3380121e-39
1.802447 -0.25856903 0.31509975 3.3380121e-39
1.8024471 -0.26182428 0.31510082 3.3380121e-39
1.8024471 -0.26507953 0.31510186 3.3380121e-39
1.8024472 -0.26833475 0.31510293 3.3380121e-39
1.8024472 -0.27158993 0.31510398 3.3380121e-39
1.8024443 0.1550492 0.3117066 3.3380121e-39
1.8024445 0.15179081 0.31170768 3.3380121e-39
1.8024445 0.14853245 0.31170875 3.3380121e-39
1.8024445 0.1452741 0.31170982 3.3380121e-39
1.8024446 0.1420158 0.31171086 3.3380121e-39
1.8024443 0.13875748 0.311712 3.3380121e-39
1.8024445 0.13549922 0.3117131 3.3380121e-39
1.8024445 0.13224098 0.31171414 3.3380121e-39
1.8024446 0.12898277 0.31171522 3.3380121e-39
2.1224408 0.1480514 0.26061824 3.3380121e-39
2.1224411 0.14421572 0.26061949 3.3380121e-39
2.1224411 0.14038007 0.26062077 3.3380121e-39
2.1224411 0.13654444 0.26062205 3.3380121e-39
2.1370463 0.13362245 0.25829113 3.3380121e-39
2.1398458 -0.24889025 0.25797114 3.3380121e-39
2.1124434 -0.249525 0.26234642 3.3380121e-39
2.1124437 -0.25333965 0.2623477 3.3380121e-39
2.1124434 -0.25715426 0.26234895 3.3380121e-39
2.1124437 -0.2609688 0.2623502 3.3380121e-39
2.1124437 -0.26478335 0.26235148 3.3380121e-39
2.1124434 -0.26859787 0.26235276 3.3380121e-39
2.1124437 -0.27241236 0.26235399 3.3380121e-39
1.827108 -0.24889867 0.3079029 3.3380121e-39
1.8031075 -0.24889405 0.31173486 3.3380121e-39
1.8024467 -0.25205839 0.3118414 3.3380121e-39
1.8024467 -0.25531372 0.31184247 3.3380121e-39
1.8024468 -0.258569 0.31184354 3.3380121e-39
1.8024468 -0.26182425 0.31184462 3.3380121e-39
1.8024467 -0.26507947 0.31184569 3.3380121e-39
1.8024468 -0.26833472 0.31184676 3.3380121e-39
1.8024468 -0.27158988 0.31184784 3.3380121e-39
1.8024442 0.1550492 0.30844879 3.3380121e-39
1.8024442 0.1517908 0.30844992 3.3380121e-39
1.8024442 0.14853245 0.30845097 3.3380121e-39
1.8024442 0.14527409 0.3084521 3.3380121e-39
1.8024442 0.14201578 0.30845317 3.3380121e-39
1.8024443 0.1387575 0.30845428 3.3380121e-39
1.8024443 0.13549922 0.30845535 3.3380121e-39
1.8024443 0.13224098 0.30845645 3.3380121e-39
1.8024442 0.12898275 0.30845755 3.3380121e-39
2.1224406 0.1480514 0.25678313 3.3380121e-39
2.1224408 0.14421572 0.25678441 3.3380121e-39
2.1224408 0.14038007 0.25678569 3.3380121e-39
2.1224408 0.13654444 0.256787 3.3380121e-39
2.1398456 -0.24889019 0.25410616 3.3380121e-39
2.1124432 -0.249525 0.25853088 3.3380121e-39
2.1124434 -0.25333962 0.25853214 3.3380121e-39
2.1124432 -0.25715423 0.25853342 3.3380121e-39
2.1124432 -0.26096874 0.25853473 3.3380121e-39
2.1124434 -0.26478332 0.25853598 3.3380121e-39
2.1124432 -0.26859784 0.25853729 3.3380121e-39
2.1124432 -0.2724123 0.25853857 3.3380121e-39
1.8271079 -0.24889864 0.30460215 3.3380121e-39
1.8031081 -0.2488941 0.30847725 3.3380121e-39
1.8024464 -0.2520583 0.30858517 3.3380121e-39
1.8024464 -0.25531363 0.30858627 3.3380121e-39
1.8024465 -0.25856891 0.30858734 3.3380121e-39
1.8024465 -0.26182416 0.30858845 3.3380121e-39
1.8024466 -0.26507941 0.30858949 3.3380121e-39
1.8024466 -0.26833463 0.30859059 3.3380121e-39
1.8024467 -0.27158982 0.30859166 3.3380121e-39
1.802444 0.1583076 0.30518991 3.3380121e-39
